# .PCD v0.7 - Point Cloud Data file format
VERSION 0.7
FIELDS x y z intensity
SIZE 4 4 4 4
TYPE F F F F
COUNT 1 1 1 1
WIDTH 1292
HEIGHT 1
VIEWPOINT 0 0 0 1 0 0 0
POINTS 1292
DATA ascii
0.74231261 -0.98687279 -0.24003772 16
0.7712937 -1.0254018 0.1122566 100
0.82270104 -1.094143 -0.21681818 51
0.76113254 -1.0122606 0.15550528 82
0.87804639 -1.167749 -0.1793917 51
0.76553965 -1.018492 0.20180048 87
0.93972743 -1.2502356 -0.13683452 100
0.75358909 -1.0029571 0.24385393 82
0.93460703 -1.243875 -0.08153943 100
0.76440644 -1.0173539 0.29378608 91
0.94273525 -1.2551492 -0.027400278 100
0.91655201 -1.2202891 0.40893409 56
0.93424588 -1.2456563 -0.41721633 100
0.93585986 -1.2478082 0.027225753 100
0.73528516 -0.9807331 -0.28298843 8
0.73801696 -0.98437679 0.064477906 75
0.73823428 -0.98502475 -0.2392745 17
0.77906179 -1.039501 0.11365108 100
0.82552767 -1.1019011 -0.21806967 49
0.76174498 -1.016765 0.15599278 94
0.86053377 -1.1486267 -0.17622308 45
0.76376092 -1.0198265 0.20180048 90
0.94232136 -1.2582527 -0.13753176 100
0.75889695 -1.0137006 0.24614362 76
0.93482846 -1.248702 -0.081748769 100
0.75095069 -1.0030863 0.28928703 78
0.93814695 -1.2535907 -0.027330469 100
0.91210586 -1.2187935 0.40789884 53
0.93322664 -1.2488325 -0.41773397 100
0.93846858 -1.2558472 0.027365373 100
0.7335723 -0.98201495 -0.28298843 8
0.73868829 -0.98886353 0.064687252 71
0.73064071 -0.97844654 -0.23736641 17
0.7700938 -1.0312806 0.11260521 100
0.8259666 -1.1065062 -0.21869542 50
0.76115674 -1.0196837 0.15623651 94
0.85615283 -1.1469452 -0.17573561 44
0.75489157 -1.0116589 0.19992328 92
0.93535757 -1.2535082 -0.13683452 100
0.75830048 -1.0165973 0.24652523 76
0.93503612 -1.2535336 -0.081958115 100
0.75385958 -1.0106436 0.29108664 84
0.92878562 -1.2456075 -0.027121039 100
0.90882266 -1.2188349 0.40738121 52
0.92527711 -1.2427118 -0.41514575 100
0.93508106 -1.2558793 0.027330469 100
0.72720319 -0.97704071 -0.28118882 8
0.73934627 -0.99335563 0.064896591 73
0.7289319 -0.97972029 -0.23736641 16
0.76234621 -1.0246307 0.11173366 100
0.82167631 -1.1047759 -0.21806967 50
0.76174521 -1.0241961 0.15672398 90
0.8541497 -1.1484376 -0.17573561 41
0.75548196 -1.0161453 0.20054901 92
0.92603594 -1.2455454 -0.13578865 100
0.75418282 -1.0147676 0.24576201 76
0.93522954 -1.2583696 -0.082167462 100
0.75674421 -1.0182141 0.29288626 84
0.92899519 -1.2504371 -0.027190849 100
0.87789154 -1.181651 0.39444023 39
0.92195559 -1.2427733 -0.41462815 100
0.92931336 -1.2526914 0.027225753 100
0.72549683 -0.97830838 -0.28118882 8
0.73999083 -0.9978531 0.065105937 75
0.73072827 -0.98572236 -0.23851125 18
0.75937021 -1.0243591 0.11155935 100
0.81504238 -1.09986 -0.21681818 47
0.75995648 -1.0255241 0.15672398 88
0.8568716 -1.1563064 -0.17671056 38
0.75605893 -1.0206368 0.20117474 90
0.92860454 -1.2535635 -0.13648589 100
0.75007385 -1.0129269 0.24499875 84
0.93303186 -1.26 -0.082167462 100
0.76192415 -1.0289299 0.29558566 91
0.92919093 -1.2552711 -0.027260659 100
0.83215153 -1.1241777 0.37476999 34
0.91748869 -1.2412734 -0.41359285 99
0.92237115 -1.2478789 0.027086135 100
0.72147214 -0.97643858 -0.28028902 8
0.73706126 -0.99753678 0.065001264 65
0.73133957 -0.99015456 -0.2392745 18
0.76113236 -1.0304908 0.11208228 100
0.81194836 -1.0996916 -0.21650532 45
0.75109088 -1.0172671 0.15526156 87
0.86782253 -1.1753669 -0.1793917 30
0.76014167 -1.0299016 0.20273907 95
0.92878145 -1.2583885 -0.13683452 100
0.74830478 -1.0142345 0.24499875 82
0.92134506 -1.2487692 -0.081330083 100
0.74855745 -1.014577 0.29108664 78
0.93293327 -1.2649375 -0.027435182 100
0.7705614 -1.0447822 0.34785283 26
0.92219448 -1.2522062 -0.41669869 100
0.92374939 -1.2543175 0.027190849 100
0.71283489 -0.96828026 -0.27758962 8
0.72703046 -0.98756278 0.064268559 71
0.727283 -0.98826706 -0.23851125 18
0.76523721 -1.0398411 0.11295383 100
0.81353939 -1.1058807 -0.21744394 52
0.74696159 -1.0153786 0.15477408 92
0.86106443 -1.1704837 -0.17841674 22
0.75483227 -1.0264527 0.20180048 90
0.92658377 -1.2600076 -0.13683452 100
0.74769622 -1.0171207 0.24538037 72
0.92389601 -1.2568123 -0.081748769 100
0.74332291 -1.0111716 0.28973696 87
0.93072414 -1.2665639 -0.027435182 100
0.75958508 -1.0336716 0.3437117 31
0.91886449 -1.2522562 -0.41618103 100
0.92983967 -1.2672135 0.027435182 100
0.719212 -0.98052227 -0.28073892 9
0.7253058 -0.98883015 0.064268559 73
0.72207445 -0.9847852 -0.23736641 19
0.76106501 -1.0379616 0.11260521 100
0.81277579 -1.1088921 -0.21775681 42
0.75575006 -1.0310904 0.15696773 78
0.88366419 -1.2056071 -0.18353525 20
0.7530396 -1.0277686 0.20180048 87
0.92202812 -1.2584087 -0.13648589 100
0.75520045 -1.031095 0.24843332 91
0.92170113 -1.2584229 -0.081748769 100
0.7404055 -1.010895 0.28928703 78
0.91669899 -1.2520516 -0.027086135 100
0.75093246 -1.0256433 0.34060588 34
0.91325712 -1.2491794 -0.41462815 100
0.92526621 -1.2656057 0.027365373 100
0.71979922 -0.98492289 -0.28163874 9
0.72829264 -0.99654472 0.064687252 71
0.72151262 -0.98762918 -0.23774803 20
0.75455099 -1.0328531 0.11190797 100
0.81782913 -1.1198806 -0.21963401 31
0.75277853 -1.0308046 0.15672398 81
0.88507086 -1.2119569 -0.18426646 16
0.74309158 -1.017913 0.1996104 84
0.91513133 -1.253579 -0.13578865 100
0.74414128 -1.0197245 0.24538037 72
0.92421269 -1.2664831 -0.082167462 100
0.74668115 -1.0232049 0.29243636 87
0.9145124 -1.2536497 -0.027086135 100
0.75027972 -1.0285131 0.34112352 28
0.91335034 -1.2538944 -0.41566339 100
0.91128224 -1.2510552 0.027016325 100
0.72381455 -0.99405444 -0.28388825 10
0.73125488 -1.0042726 0.065105937 75
0.72209853 -0.99206156 -0.23851125 18
0.7515747 -1.0325576 0.11173366 100
0.81354886 -1.1181117 -0.21900828 22
0.74513859 -1.0240911 0.15550528 84
0.89346558 -1.2279463 -0.18646011 12
0.74712354 -1.0271958 0.20117474 77
0.9176299 -1.2616193 -0.13648589 100
0.74351501 -1.0226097 0.24576201 88
0.91495377 -1.2584018 -0.08153943 100
0.74260223 -1.0213543 0.29153654 82
0.91937703 -1.2649496 -0.027295565 100
0.75416237 -1.0376345 0.3437117 19
0.91116047 -1.2554866 -0.41566339 100
0.90674824 -1.2494069 0.026946515 100
0.7049135 -0.97165579 -0.27713972 9
0.72832823 -1.0039307 0.065001264 75
0.72728145 -1.0028563 -0.24080098 20
0.74626231 -1.0290291 0.11121072 100
0.81855285 -1.1291258 -0.22088549 21
0.73985487 -1.0205685 0.15477408 87
0.8866607 -1.2230749 -0.18548515 13
0.74648881 -1.030098 0.20148762 84
0.91308814 -1.2599924 -0.13613726 100
0.73712212 -1.0175462 0.24423553 79
0.90806925 -1.2535268 -0.081120737 100
0.74653476 -1.0305396 0.29378608 91
0.91951358 -1.2697915 -0.027365373 100
0.75801557 -1.0467726 0.34629989 18
0.91462773 -1.2649024 -0.4182516 100
0.91159654 -1.2607104 0.027155945 100
0.70549965 -0.97604334 -0.27803952 9
0.7218948 -0.99872571 0.064582579 71
0.72782964 -1.0073067 -0.2415642 20
0.74796575 -1.0351748 0.11173366 100
0.82814717 -1.1465663 -0.22401418 22
0.73807245 -1.0218582 0.15477408 94
0.87638837 -1.213356 -0.18377897 13
0.7423771 -1.028196 0.20086187 84
0.91555297 -1.2680454 -0.13683452 100
0.73764288 -1.022015 0.24499875 81
0.90821767 -1.2583488 -0.081330083 100
0.73447055 -1.0176196 0.28973696 82
0.91495591 -1.268151 -0.027295565 100
0.76296932 -1.057494 0.34940571 16
0.90677249 -1.2586595 -0.41566339 100
0.91407043 -1.2687894 0.027295565 100
0.71176684 -0.98834258 -0.28118882 11
0.72131783 -1.0016048 0.064687252 80
0.74327588 -1.0324754 -0.24728847 25
0.75314224 -1.0461805 0.11277953 100
0.83537537 -1.1608368 -0.22651713 17
0.73860681 -1.0263673 0.15526156 87
0.88238585 -1.2261626 -0.18548515 16
0.73827434 -1.026283 0.20023614 84
0.91101152 -1.2664069 -0.13648589 100
0.74044287 -1.0296766 0.24652523 76
0.90835232 -1.2631751 -0.08153943 100
0.73838204 -1.0268106 0.29198647 94
0.905738 -1.2600036 -0.027086135 100
0.76676041 -1.066667 0.35199389 17
0.90232134 -1.2571014 -0.41462815 100
0.90719026 -1.2638848 0.027155945 100
0.72367352 -1.0085834 -0.28658766 11
0.72073287 -1.004485 0.064791918 73
0.79067552 -1.1023701 -0.26369804 51
0.73505795 -1.0248274 0.11033916 100
0.84600943 -1.1799523 -0.22995868 15
0.74375451 -1.0373346 0.15672398 90
0.87908775 -1.2260876 -0.18524142 22
0.73533118 -1.0259644 0.19992328 87
0.90183574 -1.2582784 -0.13544002 100
0.73635781 -1.0277754 0.24576201 75
0.90847266 -1.2680056 -0.081748769 100
0.73091406 -1.0201771 0.28973696 81
0.90586627 -1.264834 -0.027155945 100
0.76489758 -1.0680037 0.35199389 15
0.90012586 -1.2586744 -0.41462815 100
0.90149337 -1.2605865 0.027051231 100
0.7581777 -1.0605749 -0.3009845 15
0.71897864 -1.0057414 0.064791918 75
0.81842822 -1.1452786 -0.2736201 96
0.74137706 -1.0374559 0.11155935 100
0.84624529 -1.1846418 -0.23058443 11
0.73963523 -1.0354005 0.15623651 89
0.90002412 -1.2599257 -0.1901162 45
0.73698336 -1.032069 0.20086187 84
0.90195405 -1.2630932 -0.13578865 100
0.72885966 -1.0210695 0.24385393 82
0.90625811 -1.2695893 -0.081748769 100
0.73818976 -1.0341401 0.29333615 97
0.90598035 -1.2696687 -0.027225753 100
0.76191032 -1.0677645 0.35147628 12
0.90129066 -1.2649634 -0.41618103 100
0.89929181 -1.2621579 0.027051231 100
0.75293392 -1.0571346 -0.29963478 17
0.7149049 -1.0037411 0.064582579 75
0.82667613 -1.1610992 -0.27705467 100
0.74072075 -1.0403714 0.11173366 100
0.85906696 -1.207039 -0.23465173 8
0.7286185 -1.0237514 0.15428659 86
0.89091742 -1.2517908 -0.18865377 66
0.73976135 -1.0397921 0.20211335 84
0.90436804 -1.2711595 -0.13648589 100
0.72593868 -1.02074 0.24347228 82
0.89709568 -1.2614034 -0.081120737 100
0.73073667 -1.0274866 0.29108664 91
0.90608031 -1.2745078 -0.027295565 100
0.76900047 -1.0816889 0.35561737 12
0.90019995 -1.2681099 -0.41669869 100
0.90519035 -1.2751399 0.027295565 100
0.77025962 -1.0854646 -0.30728313 20
0.71084023 -1.0017296 0.064373232 75
0.82578439 -1.1641415 -0.27743632 100
0.74466753 -1.0497878 0.11260521 100
0.86495715 -1.2198162 -0.23684181 9
0.72797877 -1.0266408 0.15453033 91
0.88643473 -1.2501053 -0.18816628 91
0.73566097 -1.0378585 0.20148762 95
0.90214825 -1.272736 -0.13648589 100
0.72869617 -1.0284132 0.24499875 84
0.89489269 -1.2629673 -0.081120737 100
0.72330898 -1.0208102 0.28883713 87
0.8992312 -1.2695599 -0.027155945 100
0.77381104 -1.0924881 0.35872319 13
0.89798528 -1.2696792 -0.41669869 100
0.90527278 -1.2799832 0.027365373 100
0.77173895 -1.091581 -0.30863285 17
0.71024382 -1.0045996 0.064477906 80
0.81808579 -1.1575648 -0.27552822 100
0.7416842 -1.049459 0.11243091 100
0.8673861 -1.2277774 -0.23809329 16
0.73191297 -1.0360163 0.15574904 87
0.89112407 -1.2613783 -0.18962872 100
0.72815078 -1.031073 0.19992328 87
0.90222412 -1.2775635 -0.13683452 100
0.73142916 -1.0360988 0.24652523 76
0.89729452 -1.2710539 -0.08153943 100
0.72040242 -1.0204791 0.28838724 84
0.89470798 -1.2678596 -0.027086135 100
0.77858627 -1.1033075 0.36182904 12
0.88464022 -1.2554525 -0.4115223 99
0.90073377 -1.2782918 0.027295565 100
0.77881014 -1.1056716 -0.31223205 17
0.70963949 -1.0074705 0.064582579 77
0.82171577 -1.167017 -0.27743632 100
0.73411626 -1.0426064 0.11155935 100
0.87547469 -1.2438277 -0.2409091 23
0.73581654 -1.0454088 0.15696773 84
0.89577657 -1.2726715 -0.19109115 100
0.72407663 -1.0291111 0.19929753 77
0.89082098 -1.2661004 -0.13544002 100
0.72623134 -1.0325563 0.24538037 76
0.89737278 -1.2758852 -0.081748769 100
0.72758901 -1.0344865 0.29198647 100
0.89249384 -1.2694192 -0.027086135 100
0.77443719 -1.101504 0.36079377 12
0.88910776 -1.2664814 -0.41462815 100
0.88816053 -1.2651322 0.026981421 100
0.77687919 -1.1070293 -0.31223205 18
0.71246922 -1.015247 0.065001264 77
0.82080513 -1.1700566 -0.2778179 100
0.73229545 -1.0438861 0.11155935 100
0.86763161 -1.237267 -0.23934476 28
0.72829211 -1.0385649 0.15574904 87
0.89355397 -1.274233 -0.19109115 100
0.72681499 -1.0368434 0.20054901 77
0.89089727 -1.2709162 -0.13578865 100
0.71654159 -1.0225676 0.24270906 84
0.89399832 -1.2758139 -0.081644095 100
0.72242737 -1.0309671 0.29063675 89
0.89486605 -1.2775264 -0.027225753 100
0.77473032 -1.1060185 0.36182904 13
0.88468152 -1.2648652 -0.41359285 100
0.89397395 -1.2781508 0.027225753 100
0.76824617 -1.098801 -0.30953264 18
0.70268518 -1.0050309 0.064268559 72
0.82101101 -1.1747057 -0.27858114 100
0.73047233 -1.0451627 0.11155935 100
0.86320823 -1.2355407 -0.23871902 28
0.72193074 -1.0333253 0.15477408 86
0.89132863 -1.2757906 -0.19109115 100
0.72726637 -1.0413494 0.20117474 87
0.89324093 -1.279003 -0.13648589 100
0.71475583 -1.0238166 0.24270906 82
0.88491058 -1.2675463 -0.081016071 100
0.72285795 -1.0354221 0.29153654 89
0.89492375 -1.2823662 -0.027295565 100
0.78164321 -1.1200427 0.36597013 13
0.88799483 -1.2743322 -0.41618103 100
0.88945526 -1.2764279 0.027155945 100
0.76744097 -1.1017392 -0.30998254 19
0.69750512 -1.0013392 0.06395454 75
0.81783766 -1.1745256 -0.27819952 100
0.73092407 -1.049706 0.11190797 100
0.86669296 -1.245152 -0.24028336 30
0.71899199 -1.0329545 0.15453033 94
0.88002807 -1.2643101 -0.18914123 100
0.72206306 -1.0377527 0.20023614 84
0.89328307 -1.2838309 -0.13683452 100
0.71745193 -1.0315095 0.24423553 84
0.8849777 -1.2723681 -0.08122541 100
0.71437329 -1.0270833 0.28883713 89
0.89040124 -1.2806423 -0.027225753 100
0.79071546 -1.1372668 0.3711465 14
0.88687116 -1.2774671 -0.41669869 100
0.88836652 -1.279621 0.027190849 100
0.76773912 -1.106279 -0.31088236 19
0.70372748 -1.0140411 0.064687252 80
0.81019127 -1.1678859 -0.27629143 100
0.72454828 -1.0444319 0.11121072 100
0.86902118 -1.2531558 -0.24153483 30
0.72058177 -1.0391015 0.15526156 92
0.88460749 -1.2756317 -0.19060367 100
0.71687448 -1.0341409 0.19929753 90
0.89104098 -1.285388 -0.13683452 100
0.72012335 -1.0392148 0.24576201 76
0.88503093 -1.277194 -0.081434757 100
0.71479958 -1.031532 0.28973696 87
0.8813327 -1.2723314 -0.027016325 100
0.7865293 -1.1354688 0.37011126 12
0.8769477 -1.267891 -0.41307521 100
0.88726938 -1.2828141 0.027225753 100
0.76913184 -1.1124259 -0.31223205 16
0.70195657 -1.0152676 0.064687252 80
0.80591923 -1.166068 -0.27552822 100
0.72045869 -1.0424168 0.11086211 100
0.871324 -1.2611715 -0.24278632 32
0.72102386 -1.0436242 0.15574904 95
0.8891499 -1.286973 -0.1920661 100
0.71731371 -1.0386415 0.19992328 92
0.87747395 -1.270547 -0.13509139 100
0.71830851 -1.0404701 0.24576201 76
0.88280046 -1.2787368 -0.081434757 100
0.7152124 -1.0359855 0.29063675 94
0.88138217 -1.2771593 -0.027086135 100
0.78235167 -1.13366 0.36907598 13
0.87363726 -1.2678291 -0.41255757 100
0.87822109 -1.2744811 0.027016325 100
0.76166183 -1.1057423 -0.30998254 15
0.70131654 -1.018136 0.064791918 73
0.81056339 -1.1771748 -0.2778179 100
0.72428793 -1.0518776 0.11173366 100
0.86576158 -1.2578088 -0.24184772 34
0.71695018 -1.0416104 0.15526156 92
0.88465124 -1.2852525 -0.19157861 100
0.71661955 -1.0415192 0.20023614 95
0.88203126 -1.281925 -0.13613726 100
0.70759082 -1.0287815 0.24270906 82
0.88056719 -1.2802757 -0.081434757 100
0.71782041 -1.0436547 0.29243636 89
0.88141781 -1.2819912 -0.027155945 100
0.78474993 -1.1413913 0.3711465 13
0.87689006 -1.2773151 -0.41514575 100
0.87825888 -1.279309 0.027086135 100
0.7608335 -1.1086768 -0.31043246 17
0.69953847 -1.0193585 0.064791918 85
0.80628622 -1.1753498 -0.27705467 100
0.72019678 -1.0498544 0.11138504 100
0.86244786 -1.2576888 -0.24153483 35
0.71288592 -1.0395858 0.15477408 86
0.87791622 -1.2802459 -0.19060367 100
0.71926826 -1.0492857 0.20148762 95
0.87979257 -1.2834624 -0.13613726 100
0.70579422 -1.030015 0.24270906 84
0.87155759 -1.2719251 -0.080806725 100
0.71159172 -1.0384756 0.29063675 87
0.88595915 -1.2934264 -0.027365373 100
0.79694873 -1.1634787 0.3778758 12
0.87793124 -1.2836274 -0.41669869 100
0.87828261 -1.2841412 0.027155945 100
0.7566976 -1.1067857 -0.30953264 17
0.69099486 -1.0106854 0.064163886 83
0.80423373 -1.1767552 -0.27705467 100
0.72510862 -1.0609792 0.11243091 100
0.86248004 -1.2624543 -0.24216059 30
0.71442974 -1.0457458 0.15550528 91
0.87120122 -1.2752199 -0.18962872 100
0.71186554 -1.042383 0.19992328 90
0.88204569 -1.2915773 -0.13683452 100
0.70842314 -1.0377311 0.24423553 84
0.87158859 -1.2767434 -0.081016071 100
0.7020871 -1.0284498 0.28748745 91
0.88144606 -1.2916672 -0.027295565 100
0.7992726 -1.1712506 0.37994638 12
0.87242603 -1.2803683 -0.41514575 100
0.88054407 -1.2922823 0.027295565 100
0.75366765 -1.1064941 -0.30908275 15
0.68698108 -1.0085884 0.06395454 83
0.797759 -1.171666 -0.27552822 100
0.71652776 -1.052362 0.11138504 100
0.86360979 -1.2688566 -0.24309918 34
0.70813578 -1.0404269 0.15453033 84
0.87120807 -1.2800205 -0.1901162 100
0.7100451 -1.0436239 0.19992328 90
0.87979001 -1.2931149 -0.13683452 100
0.70881897 -1.0422127 0.24499875 84
0.87160522 -1.2815657 -0.08122541 100
0.7046746 -1.0361191 0.28928703 91
0.8701961 -1.2799739 -0.027016325 100
0.80048573 -1.1774367 0.38149929 12
0.86584997 -1.2754955 -0.41307521 100
0.87828732 -1.2938172 0.027295565 100
0.75501812 -1.1126455 -0.31043246 17
0.68970567 -1.0163966 0.064373232 79
0.79350865 -1.169807 -0.27476496 100
0.71245307 -1.0503132 0.11103641 100
0.85585076 -1.2621872 -0.24153483 30
0.71411729 -1.0531623 0.15623651 97
0.8712008 -1.2848252 -0.19060367 100
0.70600593 -1.0415912 0.19929753 90
0.86635309 -1.278156 -0.13509139 100
0.70589769 -1.0418229 0.24461715 86
0.87608922 -1.2930058 -0.081853449 100
0.70505148 -1.0405741 0.29018685 91
0.87020344 -1.2848021 -0.027086135 100
0.79626268 -1.1756331 0.38046399 11
0.86145806 -1.2738043 -0.41203994 100
0.86706585 -1.2820964 0.027016325 100
0.753075 -1.1139615 -0.31043246 16
0.69240505 -1.0242174 0.064791918 83
0.79586279 -1.1776967 -0.27629143 100
0.70950323 -1.0499041 0.11086211 100
0.84701192 -1.2538577 -0.23965763 32
0.70783323 -1.0478272 0.15526156 94
0.87340176 -1.2929235 -0.19157861 100
0.70860887 -1.0493702 0.20054901 92
0.86412096 -1.2796662 -0.13509139 100
0.70188147 -1.0397989 0.24385393 86
0.86936134 -1.2879112 -0.081434757 100
0.70650506 -1.0466485 0.29153654 94
0.8679598 -1.2863188 -0.027086135 100
0.80069298 -1.1866292 0.38356987 11
0.86571014 -1.2849188 -0.41514575 100
0.86147475 -1.2786325 0.026911611 100
0.74677527 -1.1088088 -0.30863285 16
0.68169075 -1.0121716 0.06395454 87
0.79599887 -1.1823411 -0.27705467 100
0.71545857 -1.0627102 0.11208228 100
0.84592515 -1.2569729 -0.23997049 29
0.70157009 -1.0424736 0.15428659 92
0.8689273 -1.2911521 -0.19109115 100
0.71118671 -1.0571615 0.20180048 92
0.86855882 -1.2910911 -0.13613726 100
0.70006561 -1.0410223 0.24385393 86
0.86042494 -1.2794824 -0.080806725 100
0.70576477 -1.0494971 0.29198647 91
0.87240708 -1.2977893 -0.027295565 100
0.80616498 -1.1992478 0.38719329 14
0.86992615 -1.2960519 -0.4182516 100
0.87150097 -1.298398 0.027295565 100
0.73832417 -1.100401 -0.30593342 17
0.67992312 -1.0133599 0.06395454 87
0.79174697 -1.1804677 -0.27629143 100
0.71249288 -1.0623025 0.11190797 100
0.8459301 -1.261729 -0.24059623 27
0.69974947 -1.0436964 0.15428659 100
0.86003971 -1.2827739 -0.18962872 100
0.70494157 -1.0518373 0.20054901 92
0.86852276 -1.2959152 -0.13648589 100
0.69934034 -1.0438737 0.24423553 84
0.85819054 -1.2809821 -0.080806725 100
0.69742405 -1.0410134 0.28928703 91
0.86791527 -1.295987 -0.027225753 100
0.81374538 -1.2150995 0.39185205 12
0.8612197 -1.2879329 -0.41514575 100
0.8670103 -1.2965926 0.027225753 100
0.74398321 -1.1130289 -0.30908275 16
0.67926347 -1.0162055 0.06405922 90
0.78532255 -1.1753182 -0.27476496 100
0.71063769 -1.0635444 0.11190797 100
0.84043521 -1.2582755 -0.23965763 25
0.70013207 -1.0482177 0.15477408 97
0.86110729 -1.2892251 -0.19035992 100
0.69871712 -1.0464946 0.19929753 90
0.86625957 -1.2974292 -0.13648589 100
0.70187688 -1.0516244 0.24576201 78
0.86038846 -1.2891229 -0.08122541 100
0.69776982 -1.0454708 0.29018685 91
0.86343253 -1.2941729 -0.027155945 100
0.82663363 -1.2390162 0.39909899 24
0.85254437 -1.2797874 -0.41203994 100
0.86252874 -1.2947754 0.027155945 100
0.74311948 -1.1159476 -0.30953264 17
0.68080974 -1.0223767 0.064373232 93
0.78109431 -1.1734185 -0.27400175 100
0.70326036 -1.0564904 0.11103641 100
0.83714348 -1.2580957 -0.23934476 22
0.70270026 -1.0560486 0.15574904 95
0.86655366 -1.3022947 -0.1920661 100
0.69470161 -1.0444231 0.1986718 92
0.85957998 -1.2923033 -0.13578865 100
0.69569224 -1.0463085 0.24423553 84
0.86034894 -1.2939491 -0.081434757 100
0.69594401 -1.0466871 0.29018685 100
0.85895842 -1.2923471 -0.027086135 100
0.83302456 -1.2533282 0.40324008 40
0.85137749 -1.282883 -0.41255757 100
0.85473883 -1.287948 0.026981421 100
0.7411707 -1.1172429 -0.30953264 16
0.68233669 -1.0285563 0.064687252 90
0.7855553 -1.1845971 -0.27629143 100
0.70141536 -1.0577163 0.11103641 100
0.83494645 -1.259555 -0.23934476 22
0.6986624 -1.0539643 0.15526156 95
0.86208582 -1.300496 -0.19157861 100
0.69833344 -1.0538672 0.20023614 95
0.85732329 -1.2938015 -0.13578865 100
0.6916967 -1.0442475 0.24347228 82
0.8558833 -1.2921184 -0.08122541 100
0.6984207 -1.0543988 0.29198647 92
0.85670161 -1.2938442 -0.027086135 100
0.83723515 -1.2644447 0.4063459 54
0.85339892 -1.290813 -0.41462815 100
0.85579813 -1.2944419 0.027086135 100
0.73599631 -1.1136576 -0.30818295 16
0.67943931 -1.0280795 0.064582579 96
0.78565079 -1.1892424 -0.27705467 100
0.7017647 -1.0622637 0.11138504 100
0.82294983 -1.2461748 -0.23652895 22
0.69244623 -1.0485561 0.15428659 100
0.85653305 -1.2970291 -0.19084741 100
0.69975775 -1.0600301 0.20117474 90
0.85945439 -1.3019471 -0.13648589 100
0.68879181 -1.0438145 0.24309067 68
0.85252684 -1.2919432 -0.081120737 100
0.69013947 -1.0458568 0.28928703 84
0.8610487 -1.305353 -0.027295565 100
0.83609068 -1.2675166 0.40686354 53
0.85220736 -1.2939138 -0.41514575 100
0.85573751 -1.2992737 0.027155945 100
0.73190826 -1.111685 -0.30728313 15
0.67325073 -1.022591 0.064163886 93
0.77925682 -1.1840521 -0.27552822 100
0.70210016 -1.0668154 0.11173366 100
0.82316321 -1.2507662 -0.23715468 21
0.68843305 -1.0464463 0.15379913 100
0.84881288 -1.2902302 -0.18962872 100
0.69573587 -1.0579488 0.20054901 92
0.85499126 -1.3001156 -0.13613726 100
0.6882301 -1.0465355 0.24347228 37
0.84588218 -1.2867535 -0.080702052 100
0.68510175 -1.0421747 0.28793734 68
0.85657275 -1.3035115 -0.027225753 100
0.83493817 -1.2705885 0.40738121 65
0.84994769 -1.2953993 -0.41514575 100
0.85566247 -1.3041092 0.027225753 100
0.73229921 -1.1160921 -0.30818295 15
0.6670835 -1.0170841 0.063745201 93
0.77524251 -1.1819912 -0.27476496 100
0.69823825 -1.064585 0.11138504 100
0.82097894 -1.252201 -0.23715468 20
0.69114208 -1.0541668 0.15477408 94
0.8552646 -1.3049921 -0.19157861 100
0.68757641 -1.0491276 0.1986718 87
0.85513222 -1.30479 -0.13648589 100
0.68963003 -1.0526619 0.24461715 17
0.84823781 -1.2947633 -0.081120737 100
0.68434936 -1.0449991 0.28838724 37
0.84795088 -1.294818 -0.027016325 100
0.83082455 -1.2686661 0.4063459 56
0.84474009 -1.291882 -0.41359285 100
0.85142428 -1.3021044 0.027155945 100
0.73461497 -1.1238931 -0.30998254 15
0.67094874 -1.0264897 0.064268559 90
0.77532601 -1.1866297 -0.27552822 100
0.69093001 -1.0574623 0.11051348 100
0.81339127 -1.2453626 -0.23559032 20
0.68930125 -1.0553715 0.15477408 95
0.84778619 -1.2980238 -0.19035992 100
0.68466425 -1.0486718 0.19835892 84
0.84413987 -1.2929339 -0.13509139 100
0.68457276 -1.0489316 0.24347228 16
0.85252625 -1.3062772 -0.081748769 100
0.68270695 -1.0460727 0.28838724 17
0.84787488 -1.2996455 -0.027086135 100
0.8201645 -1.2571703 0.40220481 52
0.8435384 -1.2949731 -0.41411048 100
0.84151012 -1.2918594 0.026911611 100
0.73477906 -1.1284398 -0.31088236 15
0.67351556 -1.0343541 0.064687252 90
0.77325386 -1.1879811 -0.27552822 100
0.69886541 -1.0736951 0.11208228 100
0.80906188 -1.2434689 -0.23496459 20
0.68962342 -1.0599008 0.15526156 100
0.85093248 -1.307821 -0.19157861 100
0.68821806 -1.058145 0.19992328 92
0.84405458 -1.2977458 -0.13544002 100
0.6784606 -1.0435408 0.2419458 17
0.84806794 -1.304414 -0.08153943 100
0.84560531 -1.3011234 -0.027086135 100
0.82954919 -1.2764181 0.40789884 55
0.84022546 -1.2948229 -0.41359285 100
0.84360826 -1.3000361 0.027051231 100
0.72220331 -1.1133715 -0.30638334 16
0.67062229 -1.0338525 0.064582579 96
0.77331549 -1.1926233 -0.27629143 100
0.69048661 -1.0648828 0.11103641 100
0.8047415 -1.2415638 -0.23433885 21
0.68345362 -1.0544395 0.15428659 100
0.84217036 -1.2993095 -0.1901162 100
0.68637031 -1.0593445 0.19992328 87
0.84395522 -1.3025612 -0.13578865 100
0.68304163 -1.0546104 0.24423553 21
0.8371039 -1.2924813 -0.080702052 100
0.84768027 -1.3093116 -0.027225753 100
0.83151972 -1.2843504 0.40996939 56
0.84215933 -1.3027769 -0.41566339 100
0.84133804 -1.3015064 0.027051231 100
0.72554737 -1.1228139 -0.30863285 16
0.66664892 -1.0316663 0.064373232 100
0.77336323 -1.1972693 -0.27705467 100
0.69295108 -1.0727807 0.11173366 100
0.8036449 -1.244626 -0.23465173 21
0.68161219 -1.0556308 0.15428659 97
0.83344054 -1.2907714 -0.18865377 100
0.68344909 -1.0588812 0.1996104 84
0.84816325 -1.3140759 -0.13683452 100
0.68013567 -1.0541513 0.24385393 22
0.8391782 -1.3006535 -0.081120737 100
0.84322613 -1.3074282 -0.027155945 100
0.83032393 -1.2874234 0.41048703 60
0.8377924 -1.3009964 -0.41462815 100
0.84123051 -1.3063353 0.027121039 100
0.72253174 -1.12244 -0.30818295 15
0.66592836 -1.0345076 0.064477906 100
0.76489836 -1.1887114 -0.27476496 100
0.69107777 -1.0739884 0.11173366 100
0.80147141 -1.2460268 -0.23465173 21
0.68191659 -1.060158 0.15477408 100
0.83118647 -1.292224 -0.18865377 100
0.68053156 -1.0584108 0.19929753 92
0.8437134 -1.3122027 -0.13648589 100
0.68147928 -1.0602914 0.24499875 30
0.83906657 -1.3054763 -0.081330083 100
0.83445758 -1.2988036 -0.026946515 100
0.82703149 -1.2872452 0.40996939 69
0.82821876 -1.2910744 -0.41100466 100
0.84110868 -1.311168 0.027190849 100
0.72267544 -1.1269802 -0.30908275 15
0.66304362 -1.033987 0.064373232 96
0.76494139 -1.1933503 -0.27552822 100
0.68060058 -1.0617741 0.11033916 100
0.79290104 -1.2374442 -0.23277451 23
0.68327808 -1.0663607 0.15550528 100
0.83535564 -1.3037012 -0.1901162 100
0.68081409 -1.0629239 0.19992328 90
0.83282483 -1.3002512 -0.13509139 100
0.68386215 -1.0680927 0.24652523 31
0.84324855 -1.317031 -0.081958115 100
0.8343454 -1.3036265 -0.027016325 100
0.81332827 -1.2707882 0.40427536 58
0.83220571 -1.302285 -0.41411048 100
0.83020467 -1.2991537 0.026911611 100
0.72070736 -1.1282399 -0.30908275 15
0.66231316 -1.0368259 0.064477906 99
0.77131009 -1.207921 -0.27858114 100
0.68732452 -1.0763943 0.11173366 100
0.78967732 -1.2371612 -0.23246165 25
0.68141592 -1.0675516 0.15550528 100
0.83735126 -1.3118503 -0.19109115 100
0.67683285 -1.0607798 0.19929753 90
0.83055431 -1.3017027 -0.13509139 100
0.67355114 -1.0560427 0.24347228 65
0.83772659 -1.313449 -0.081644095 100
0.83421886 -1.308453 -0.027086135 100
0.81007046 -1.2705768 0.40375772 53
0.82785666 -1.3004762 -0.41307521 100
0.82793593 -1.3006006 0.026911611 100
0.71245992 -1.1196314 -0.30638334 15
0.66157478 -1.0396653 0.064582579 96
0.77763033 -1.2225176 -0.28163409 100
0.68544483 -1.0775923 0.11173366 100
0.78539699 -1.2352036 -0.23183592 29
0.67209572 -1.0570133 0.15379913 95
0.83079976 -1.3066092 -0.1901162 100
0.67921895 -1.068628 0.20054901 87
0.83255613 -1.3098763 -0.13578865 100
0.66749561 -1.0505884 0.2419458 68
0.8279354 -1.3031088 -0.080911398 100
0.83622229 -1.3166592 -0.027225753 100
0.81924444 -1.2899271 0.40945172 65
0.82949573 -1.3085898 -0.41514575 100
0.8318612 -1.3123214 0.027121039 100
0.70822299 -1.1177049 -0.30548352 12
0.65637052 -1.0358722 0.064268559 100
0.78368598 -1.2372768 -0.28468704 60
0.68124259 -1.0755401 0.11138504 100
0.79275304 -1.2515918 -0.23465173 30
0.67006516 -1.0583017 0.15379913 100
0.81979448 -1.2947844 -0.18816628 100
0.67294037 -1.0632534 0.19929753 92
0.83217084 -1.3148392 -0.13613726 100
0.67196059 -1.0617052 0.24423553 58
0.82756776 -1.3080715 -0.081120737 100
0.83369285 -1.3182622 -0.027225753 100
0.81160355 -1.2833338 0.40686354 59
0.82721037 -1.3100357 -0.41514575 100
0.83063698 -1.3154624 0.027155945 100
0.69918329 -1.1072819 -0.30233422 9
0.65562773 -1.0387051 0.064373232 100
0.78069371 -1.236846 -0.28430542 37
0.68486971 -1.0850329 0.1122566 100
0.79689181 -1.262997 -0.23652895 31
0.67157972 -1.0643895 0.15453033 100
0.82176924 -1.3029294 -0.18914123 100
0.66916186 -1.0609677 0.1986718 90
0.82585293 -1.3094041 -0.13544002 100
0.67534178 -1.0711802 0.24614362 48
0.82657719 -1.3110592 -0.08122541 100
0.82095939 -1.3026526 -0.026876707 100
0.81164676 -1.2878759 0.40789884 59
0.81589186 -1.2966176 -0.41048703 100
0.82750469 -1.3150729 0.027121039 100
0.69932491 -1.1117995 -0.30323401 9
0.65718555 -1.0448055 0.064687252 100
0.79211873 -1.259813 -0.28926644 29
0.67343003 -1.0710465 0.11068779 100
0.79783988 -1.2694036 -0.23746756 42
0.67183375 -1.0689214 0.15501782 100
0.81549633 -1.2974958 -0.18816628 100
0.66835994 -1.0638065 0.19898467 95
0.80448759 -1.2804766 -0.13230242 100
0.67138278 -1.069032 0.24538037 46
0.82641214 -1.3158827 -0.081434757 100
0.82719028 -1.3176323 -0.027155945 100
0.80015332 -1.2745651 0.40324008 56
0.8208096 -1.3094976 -0.41411048 100
0.81883597 -1.3063489 0.026911611 100
0.70255667 -1.1212752 -0.30548352 8
0.6596027 -1.052721 0.065105937 100
0.79304522 -1.2661852 -0.29041129 45
0.67155981 -1.0722201 0.11068779 100
0.77465814 -1.2373079 -0.23121016 59
0.66786033 -1.0667272 0.15453033 100
0.80480337 -1.2854568 -0.18621638 94
0.66755009 -1.0666459 0.19929753 92
0.78322577 -1.2514784 -0.12916481 100
0.66639239 -1.065209 0.24423553 53
0.82199579 -1.3139365 -0.08122541 100
0.82488936 -1.3190742 -0.027155945 100
0.79792756 -1.2759597 0.40324008 62
0.81954598 -1.312567 -0.41462815 100
0.81655467 -1.3077761 0.026911611 100
0.70266241 -1.1258061 -0.30638334 10
0.65353447 -1.0470933 0.064687252 100
0.78355968 -1.2559075 -0.28773996 73
0.66968745 -1.0733905 0.11068779 100
0.7693615 -1.2336298 -0.23027156 81
0.66284609 -1.0628382 0.15379913 100
0.7836501 -1.2565409 -0.18182908 98
0.66882277 -1.0728383 0.20023614 95
0.78209454 -1.2545341 -0.12933911 100
0.66349375 -1.0647044 0.24385393 50
0.81547582 -1.3085891 -0.080806725 100
0.82258582 -1.3205118 -0.027155945 100
0.80284935 -1.2888285 0.40686354 61
0.81929445 -1.3172762 -0.41566339 100
0.82060766 -1.3193877 0.027121039 100
0.70481205 -1.1336505 -0.30818295 13
0.6474877 -1.0414476 0.064268559 100
0.78033024 -1.2556059 -0.28735834 100
0.66991633 -1.0779421 0.11103641 100
0.77346158 -1.2450383 -0.23214878 90
0.66099012 -1.0639935 0.15379913 100
0.7709806 -1.2410448 -0.1793917 100
0.66382283 -1.0689695 0.19929753 92
0.77780151 -1.252512 -0.12899049 100
0.66267002 -1.0675287 0.24423553 66
0.81529754 -1.3134041 -0.081016071 100
0.82133418 -1.3236448 -0.027190849 100
0.80263585 -1.2935109 0.40789884 61
0.81495923 -1.3154197 -0.41462815 100
0.82040995 -1.3242177 0.027190849 100
0.70591044 -1.1398492 -0.30953264 14
0.6446175 -1.0408781 0.064163886 100
0.77297068 -1.2486196 -0.28545028 100
0.67013139 -1.082498 0.11138504 100
0.77128732 -1.2463864 -0.23214878 90
0.66122121 -1.0685215 0.15428659 97
0.76881337 -1.2423885 -0.1793917 100
0.65987784 -1.0667666 0.1986718 92
0.77351809 -1.2504789 -0.12864187 100
0.66390312 -1.073693 0.24538037 63
0.81405419 -1.3165239 -0.081120737 100
0.80956048 -1.3097671 -0.026876707 100
0.79631436 -1.2883365 0.40582827 59
0.80961847 -1.3119081 -0.41307521 100
0.81599712 -1.322244 0.027121039 100
0.71312821 -1.1560065 -0.31358176 14
0.65014011 -1.0539005 0.064896591 100
0.76769876 -1.2449535 -0.28430542 100
0.6661495 -1.0802741 0.11103641 100
0.76911086 -1.2477306 -0.23214878 90
0.66248024 -1.0747435 0.15501782 100
0.77081025 -1.2504876 -0.18036664 100
0.65905118 -1.0695984 0.19898467 95
0.77342469 -1.2552195 -0.12899049 100
0.66511714 -1.0798651 0.24652523 66
0.81699246 -1.3264453 -0.081644095 100
0.81146687 -1.3179893 -0.027016325 100
0.79102606 -1.2847892 0.40427536 56
0.80328077 -1.3067361 -0.41100466 100
0.80949926 -1.3168521 0.026981421 100
0.71212971 -1.1589097 -0.31403166 17
0.64411718 -1.048227 0.064477906 100
0.76963496 -1.2529829 -0.28583187 100
0.65800625 -1.0712489 0.10999054 100
0.76383108 -1.2440209 -0.23121016 93
0.66060334 -1.0758982 0.15501782 100
0.77070391 -1.2552145 -0.18085413 100
0.65718335 -1.0707471 0.19898467 95
0.76914835 -1.2531714 -0.12864187 100
0.65707141 -1.0709838 0.24423553 84
0.81258726 -1.3244646 -0.081434757 100
0.8091653 -1.3194036 -0.027016325 100
0.79181242 -1.2911084 0.40582827 59
0.80806053 -1.3196689 -0.41462815 100
0.80928814 -1.3216738 0.027051231 100
0.69993258 -1.1435297 -0.30953264 14
0.638116 -1.0425355 0.06405922 100
0.76744699 -1.2543242 -0.28583187 100
0.66341448 -1.0842923 0.11121072 100
0.76268929 -1.2470374 -0.23152302 88
0.65251017 -1.0668887 0.15355539 100
0.76851195 -1.2565577 -0.18085413 96
0.65943503 -1.078634 0.20023614 98
0.76592064 -1.2528119 -0.12846756 100
0.65417737 -1.0704538 0.24385393 100
0.80402535 -1.3156555 -0.080806725 100
0.81728584 -1.3378787 -0.027365373 100
0.79056484 -1.294137 0.4063459 58
0.80877399 -1.3260249 -0.41618103 100
0.80489779 -1.3196697 0.026981421 100
0.69793576 -1.1447495 -0.30953264 13
0.63317645 -1.0385317 0.063745201 100
0.76525646 -1.2556617 -0.28583187 100
0.66566831 -1.0922538 0.11190797 100
0.76256716 -1.2517406 -0.23214878 71
0.64961433 -1.0663306 0.15331164 97
0.76012117 -1.2477255 -0.1793917 88
0.65755147 -1.0797833 0.20023614 95
0.77098686 -1.2660587 -0.12968774 100
0.65128726 -1.069917 0.24347228 84
0.80172789 -1.3170568 -0.080806725 100
0.80663365 -1.3256366 -0.027086135 100
0.79031336 -1.2988155 0.40738121 58
0.80344927 -1.3224814 -0.41462815 100
0.80674642 -1.3279084 0.027121039 100
0.69998288 -1.1526285 -0.31133226 14
0.63654649 -1.0481708 0.064268559 100
0.75695121 -1.2469261 -0.28354219 100
0.66065943 -1.0883045 0.11138504 100
0.77062905 -1.2699574 -0.23527746 52
0.65290129 -1.075948 0.15453033 100
0.75897205 -1.2507472 -0.17963544 60
0.65156794 -1.0741735 0.19898467 98
0.76360947 -1.2588849 -0.12881619 100
0.65043682 -1.0727308 0.24385393 86
0.80046356 -1.3201619 -0.080911398 100
0.80017287 -1.3202021 -0.026946515 100
0.78203726 -1.2902803 0.40427536 52
0.79513878 -1.3139648 -0.4115223 100
0.80235696 -1.3258928 0.027051231 100
0.69191837 -1.143844 -0.30863285 13
0.62851369 -1.0390267 0.063640527 100
0.7568053 -1.2516054 -0.28430542 100
0.65257323 -1.0792264 0.11033916 100
0.7673896 -1.2696098 -0.23496459 37
0.65307623 -1.0804837 0.15501782 100
0.75473428 -1.2486721 -0.17914794 41
0.65275687 -1.0803812 0.19992328 100
0.76038104 -1.2585105 -0.12864187 100
0.65059346 -1.0772256 0.24461715 87
0.80435348 -1.3318149 -0.08153943 100
0.7978676 -1.3215966 -0.026946515 100
0.77978426 -1.2916431 0.40427536 51
0.79783064 -1.3236234 -0.41411048 100
0.79591227 -1.3204408 0.026911611 100
0.68690372 -1.1400424 -0.30728313 11
0.6308223 -1.046965 0.06405922 100
0.75563282 -1.2546061 -0.28468704 100
0.64966089 -1.0786569 0.11016486 100
0.7539649 -1.2523314 -0.23152302 31
0.64811772 -1.0765198 0.15428659 100
0.75869709 -1.2601916 -0.18061039 40
0.64985168 -1.0798262 0.1996104 100
0.75818336 -1.2598356 -0.12864187 100
0.64264029 -1.0682654 0.24232745 86
0.80305749 -1.334928 -0.081644095 100
0.79762059 -1.3264146 -0.027016325 100
0.76956409 -1.2797577 0.40013427 30
0.7985025 -1.3299826 -0.41566339 100
0.79566514 -1.3252567 0.026981421 100
0.67388207 -1.1228594 -0.30233422 9
0.63002175 -1.0497769 0.064163886 100
0.75546187 -1.2592902 -0.28545028 100
0.65290213 -1.0883318 0.11103641 100
0.75584179 -1.260422 -0.23277451 31
0.64725882 -1.0793519 0.15453033 100
0.75241286 -1.254704 -0.17963544 35
0.64796591 -1.0809588 0.1996104 98
0.75495887 -1.2594481 -0.12846756 100
0.642793 -1.0727535 0.24309067 87
0.79456693 -1.3260483 -0.081016071 100
0.79941458 -1.3346667 -0.027155945 100
0.76236606 -1.2728121 0.39754605 19
0.79717147 -1.3330323 -0.41618103 100
0.79642981 -1.331792 0.027086135 100
0.66192251 -1.1073072 -0.2978352 9
0.62203997 -1.0405891 0.063535862 100
0.75326276 -1.2606068 -0.28545028 100
0.65406746 -1.0946007 0.11155935 100
0.75161481 -1.2583475 -0.23214878 30
0.63926631 -1.0702544 0.1530679 100
0.74818593 -1.2526069 -0.17914794 36
0.64506567 -1.080392 0.19929753 92
0.76195204 -1.2761599 -0.13003637 100
0.64494431 -1.0806172 0.24461715 86
0.79429841 -1.330863 -0.08122541 100
0.7970838 -1.33606 -0.027155945 100
0.74628657 -1.2509146 0.39029911 12
0.79286665 -1.3311021 -0.41514575 100
0.79308099 -1.331462 0.027051231 100
0.66198277 -1.1118096 -0.29873499 9
0.62328815 -1.0468214 0.063849874 100
0.7470451 -1.2551713 -0.2839238 100
0.65113711 -1.0940285 0.11138504 100
0.75143743 -1.2630527 -0.23277451 32
0.64145726 -1.0781927 0.15404287 100
0.75005841 -1.2607348 -0.1801229 34
0.64014989 -1.0764227 0.19835892 84
0.75157636 -1.2637882 -0.12864187 100
0.64506364 -1.0851163 0.24538037 79
0.7878921 -1.32538 -0.080806725 100
0.78862166 -1.3271346 -0.026946515 100
0.72633862 -1.2223214 0.38098165 10
0.78561348 -1.3241768 -0.41255757 100
0.79075581 -1.3328443 0.027051231 100
0.66202933 -1.1163155 -0.29963478 9
0.62349772 -1.0513434 0.06405922 100
0.74084866 -1.2497181 -0.28239733 100
0.6441465 -1.0865937 0.11051348 100
0.74822485 -1.262663 -0.23246165 34
0.64362246 -1.0861417 0.15501782 100
0.74785686 -1.2620419 -0.1801229 37
0.64129049 -1.0826371 0.19929753 90
0.74835414 -1.2633837 -0.12846756 100
0.63916773 -1.0794832 0.24385393 86
0.79168314 -1.3370647 -0.081434757 100
0.78630418 -1.328509 -0.026946515 100
0.71436441 -1.2069623 0.37580526 9
0.78428411 -1.3272089 -0.41307521 100
0.78435922 -1.327336 0.026911611 100
0.66206223 -1.1208252 -0.30053461 9
0.62572497 -1.0593088 0.064477906 100
0.74465555 -1.2611525 -0.28468704 100
0.64224911 -1.0877163 0.11051348 100
0.73497534 -1.245254 -0.22902009 44
0.64071691 -1.0855538 0.15477408 94
0.74968916 -1.2701833 -0.18109787 36
0.63739246 -1.0803522 0.1986718 92
0.74716038 -1.266404 -0.12864187 100
0.63528812 -1.077215 0.24309067 87
0.78934836 -1.3384445 -0.081434757 94
0.7880463 -1.3367698 -0.027086135 100
0.70244604 -1.1915653 0.37062889 9
0.78588593 -1.3352354 -0.41514575 100
0.78204113 -1.3287029 0.026911611 100
0.66208148 -1.125338 -0.3014344 10
0.62995201 -1.0707276 0.065105937 100
0.74643445 -1.2692193 -0.28621352 100
0.64438993 -1.0957053 0.11121072 100
0.7418105 -1.2618612 -0.23183592 45
0.63077301 -1.0729802 0.15282416 94
0.74344689 -1.2646447 -0.1801229 37
0.64251143 -1.0933846 0.20086187 100
0.74696767 -1.2711416 -0.12899049 100
0.633407 -1.0783222 0.24309067 86
0.77992994 -1.3277651 -0.080702052 84
0.79178715 -1.3484898 -0.027295565 100
0.70232165 -1.1961215 0.37166417 9
0.78648555 -1.3416047 -0.41669869 100
0.78174376 -1.333516 0.026981421 100
0.65223444 -1.1130413 -0.2978352 9
0.63111156 -1.076995 0.06541995 100
0.74421805 -1.2705202 -0.28621352 100
0.64348358 -1.0985475 0.11138504 100
0.73960721 -1.2631539 -0.23183592 50
0.63090545 -1.0775054 0.15331164 95
0.73522055 -1.2556622 -0.17866047 35
0.63661075 -1.087685 0.1996104 95
0.74474794 -1.2724434 -0.12899049 100
0.63449824 -1.0845096 0.24423553 84
0.77962857 -1.3325722 -0.080911398 84
0.7874133 -1.3464172 -0.027225753 100
0.69633192 -1.1906749 0.36959362 10
0.7812205 -1.3379704 -0.41514575 100
0.78344834 -1.3417859 0.027121039 100
0.6620785 -1.1343745 -0.30323401 9
0.64131212 -1.0987943 0.066676013 100
0.73606342 -1.2616426 -0.2839238 100
0.64056122 -1.097948 0.11121072 100
0.73640603 -1.2627364 -0.23152302 63
0.63802409 -1.0940381 0.15550528 100
0.73702782 -1.2638026 -0.17963544 36
0.63073212 -1.0819679 0.19835892 100
0.74152273 -1.27202 -0.12881619 100
0.631616 -1.0839192 0.24385393 82
0.77931273 -1.3373822 -0.081120737 80
0.78002971 -1.3391498 -0.027051231 100
0.68355685 -1.1735259 0.36389959 10
0.77402818 -1.330982 -0.41255757 100
0.7790947 -1.339694 0.027051231 100
0.66695321 -1.1473217 -0.30638334 11
0.63437456 -1.0912784 0.066152655 100
0.73583305 -1.2663203 -0.28468704 100
0.62863386 -1.0818375 0.10946761 100
0.73221684 -1.2606035 -0.23089729 68
0.63312268 -1.0900004 0.15477408 100
0.73282701 -1.261654 -0.17914794 36
0.62884277 -1.0830672 0.19835892 100
0.73229867 -1.2612511 -0.12759601 100
0.62972331 -1.0850198 0.24385393 82
0.78098774 -1.3456498 -0.08153943 82
0.77568442 -1.3370498 -0.026981421 100
0.67569119 -1.1646911 0.36079377 10
0.77170396 -1.3323308 -0.41255757 100
0.77074164 -1.3306694 0.026841803 100
0.66299683 -1.1451111 -0.30548352 11
0.61945927 -1.0699141 0.064791918 100
0.73558861 -1.2710011 -0.28545028 100
0.63173473 -1.0915552 0.11033916 100
0.72704804 -1.2567499 -0.22995868 76
0.63121933 -1.0911038 0.15477408 97
0.73857629 -1.2766773 -0.18109787 38
0.63090706 -1.0910033 0.1996104 98
0.73608065 -1.2728759 -0.12864187 100
0.62488103 -1.0810181 0.24270906 82
0.77663875 -1.3435526 -0.081330083 80
0.78135318 -1.3522532 -0.027260659 100
0.6736573 -1.1658688 0.36079377 10
0.77130806 -1.3370224 -0.41359285 100
0.76841801 -1.3320127 0.026841803 100
0.65905029 -1.1428902 -0.30458373 11
0.61360008 -1.0640728 0.064373232 100
0.73532999 -1.2756848 -0.28621352 100
0.63480359 -1.1012869 0.11121072 100
0.72978443 -1.2665749 -0.23152302 85
0.61940354 -1.0750036 0.15233669 100
0.73238271 -1.2710843 -0.1801229 38
0.63097376 -1.0955263 0.20023614 95
0.73087466 -1.2689791 -0.12811893 100
0.62299341 -1.0821071 0.24270906 84
0.77030665 -1.3379825 -0.080911398 80
0.77699709 -1.3501483 -0.027190849 100
0.6629492 -1.1519731 0.35613501 10
0.77474797 -1.348417 -0.41669869 100
0.77007693 -1.3402873 0.026981421 100
0.64637858 -1.12545 -0.29963478 10
0.60676849 -1.0564824 0.063849874 100
0.7291925 -1.2701558 -0.28468704 100
0.63585639 -1.1075768 0.11173366 100
0.72953916 -1.2712734 -0.23214878 76
0.62246656 -1.0846919 0.15355539 100
0.72423488 -1.2620304 -0.17866047 39
0.62906075 -1.0966259 0.20023614 100
0.73758113 -1.2858069 -0.12968774 100
0.62598664 -1.0917084 0.24461715 86
0.76995718 -1.3427901 -0.081120737 80
0.7726506 -1.3480326 -0.027121039 100
0.66285902 -1.1564808 0.35717031 11
0.76759595 -1.3413832 -0.41411048 100
0.77369583 -1.3520429 0.027190849 100
0.65312159 -1.1418005 -0.30368391 12
0.60789865 -1.0627409 0.064163886 100
0.72307658 -1.2646092 -0.28316057 100
0.62996656 -1.1017665 0.11103641 100
0.73124009 -1.2794048 -0.23340026 71
0.62451255 -1.0926703 0.15453033 100
0.72597122 -1.2701862 -0.17963544 40
0.61930639 -1.0840006 0.19773319 84
0.73335916 -1.2836324 -0.12933911 100
0.62505388 -1.0945041 0.24499875 82
0.76959324 -1.3476006 -0.081330083 82
0.7663312 -1.3424325 -0.026981421 100
0.65413529 -1.1458917 0.35354683 11
0.76238376 -1.3376859 -0.41255757 100
0.76737404 -1.3464419 0.027051231 100
0.65498644 -1.1497116 -0.30548352 11
0.60406572 -1.0603293 0.06395454 100
0.72378284 -1.2709874 -0.28430542 100
0.62311292 -1.0942075 0.11016486 100
0.72900599 -1.2806791 -0.23340026 63
0.62653261 -1.1006594 0.15550528 100
0.72571725 -1.2749016 -0.1801229 39
0.62034446 -1.0902306 0.1986718 92
0.72323513 -1.2710568 -0.12794463 100
0.62120146 -1.0921804 0.24423553 84
0.76724011 -1.3489417 -0.081330083 78
0.763987 -1.343768 -0.026981421 100
0.64545071 -1.1352758 0.34992337 11
0.75814068 -1.3356541 -0.4115223 100
0.76107448 -1.3408228 0.026911611 100
0.65105534 -1.1474633 -0.30458373 12
0.6091134 -1.073542 0.064687252 100
0.71672088 -1.26371 -0.28239733 100
0.62611693 -1.1039587 0.11103641 100
0.71897596 -1.2682019 -0.23089729 60
0.6206947 -1.0948436 0.15453033 100
0.72153312 -1.2727126 -0.17963544 42
0.62136227 -1.0964675 0.1996104 95
0.72003317 -1.2705839 -0.12777032 100
0.61542368 -1.08643 0.24270906 84
0.76488459 -1.3502789 -0.081330083 80
0.76558173 -1.3520597 -0.027121039 100
0.64346832 -1.1364007 0.34992337 11
0.75961125 -1.3437023 -0.41359285 100
0.75873315 -1.342149 0.026911611 100
0.63658845 -1.126542 -0.29873499 10
0.60625631 -1.0728647 0.064582579 100
0.72127306 -1.2769248 -0.28506866 100
0.6202696 -1.0981107 0.11033916 100
0.71870387 -1.2728951 -0.23152302 54
0.61390287 -1.0872823 0.15331164 100
0.72321475 -1.2808843 -0.18061039 46
0.61944777 -1.0975502 0.1996104 98
0.72271109 -1.2805141 -0.12864187 100
0.61352652 -1.0875025 0.24270906 82
0.75860125 -1.3446537 -0.080911398 84
0.76911432 -1.3638448 -0.027330469 100
0.63673913 -1.1291083 0.34733516 11
0.7620036 -1.3534429 -0.41618103 100
0.76031369 -1.3504413 0.027051231 100
0.63270974 -1.1242548 -0.2978352 10
0.59458739 -1.0565156 0.063535862 100
0.72096837 -1.2816038 -0.28583187 100
0.62616694 -1.1130834 0.11173366 100
0.7193858 -1.2793131 -0.23246165 47
0.61005837 -1.0848917 0.15282416 94
0.71124822 -1.2648417 -0.17817299 46
0.61946696 -1.1020737 0.20023614 95
0.72340357 -1.2869841 -0.12916481 100
0.6154744 -1.095418 0.24423553 84
0.75527501 -1.3442342 -0.080806725 88
0.76281595 -1.3582109 -0.027190849 100
0.63287556 -1.1268492 0.34629989 11
0.75869542 -1.3530859 -0.41566339 100
0.75991154 -1.3552547 0.027121039 100
0.63265216 -1.1287572 -0.29873499 9
0.59567195 -1.0627784 0.063849874 100
0.712973 -1.2725838 -0.28354219 100
0.62519711 -1.1159128 0.11190797 100
0.72101271 -1.2874607 -0.23371312 33
0.61689353 -1.1015426 0.15501782 100
0.71485931 -1.276473 -0.17963544 46
0.61271811 -1.0945349 0.1986718 92
0.72212964 -1.2899832 -0.12933911 100
0.61547881 -1.0999171 0.24499875 82
0.75487816 -1.3490365 -0.081016071 100
0.75556344 -1.350814 -0.027016325 100
0.62902188 -1.12458 0.34526464 15
0.75350702 -1.3493478 -0.41411048 100
0.75754499 -1.3565788 0.027121039 100
0.62688184 -1.1230533 -0.29693538 9
0.59673655 -1.0690484 0.064163886 100
0.71266401 -1.2772552 -0.28430542 100
0.61645299 -1.1048231 0.11068779 100
0.71587795 -1.2835416 -0.23277451 26
0.61400312 -1.1008838 0.15477408 100
0.71263033 -1.2777188 -0.17963544 42
0.60888302 -1.0921518 0.19804606 92
0.71502614 -1.2825404 -0.12846756 100
0.61164689 -1.0975597 0.24423553 84
0.75543934 -1.3555857 -0.081330083 100
0.75417781 -1.3538775 -0.027051231 100
0.61859709 -1.1104871 0.34060588 20
0.74833405 -1.3455961 -0.41255757 100
0.74934465 -1.3474133 0.026911611 100
0.62870818 -1.1309588 -0.29873499 9
0.59681064 -1.0735795 0.064373232 100
0.71234089 -1.2819293 -0.28506866 100
0.61355597 -1.1041558 0.11051348 100
0.70884073 -1.2761548 -0.23121016 27
0.61304462 -1.1036892 0.15501782 100
0.71521872 -1.2876374 -0.18085413 39
0.60889375 -1.0966671 0.1986718 92
0.71181947 -1.2820446 -0.12829326 100
0.60591954 -1.0917591 0.24270906 84
0.75404149 -1.3586485 -0.081434757 100
0.75375384 -1.358689 -0.027121039 100
0.62228096 -1.1217009 0.3437117 30
0.75160027 -1.3570398 -0.41566339 100
0.74892956 -1.3522178 0.026981421 100
0.62484556 -1.1286446 -0.2978352 9
0.59687072 -1.0781143 0.064582579 100
0.71485543 -1.2917594 -0.28697675 100
0.6145221 -1.1104548 0.11103641 100
0.70565611 -1.2756613 -0.23089729 31
0.60343033 -1.0908611 0.1530679 100
0.71008766 -1.2836726 -0.1801229 42
0.61558157 -1.1132864 0.20148762 95
0.71054482 -1.2850285 -0.12846756 100
0.60401309 -1.092815 0.24270906 84
0.74683827 -1.3512224 -0.080911398 100
0.75428241 -1.3652534 -0.027225753 100
0.62405914 -1.129549 0.34578225 31
0.7492308 -1.3583494 -0.41566339 100
0.74850011 -1.3570247 0.027051231 100
0.62287486 -1.1297333 -0.2978352 9
0.588238 -1.066911 0.063849874 100
0.71070457 -1.2895663 -0.28621352 100
0.61835301 -1.1219953 0.11208228 100
0.70342857 -1.2768911 -0.23089729 44
0.60344124 -1.0953902 0.15355539 100
0.70497262 -1.279694 -0.1793917 47
0.60506189 -1.0987858 0.1986718 92
0.71310627 -1.294993 -0.12933911 100
0.60399824 -1.0973073 0.24347228 84
0.74447876 -1.3525238 -0.080911398 100
0.75286239 -1.3683199 -0.027260659 100
0.63326186 -1.1509472 0.35199389 39
0.74499869 -1.3562686 -0.41462815 100
0.74901879 -1.363587 0.027155945 100
0.63309491 -1.1530252 -0.30368391 11
0.58252972 -1.0609334 0.063431181 100
0.70467448 -1.2839203 -0.28468704 100
0.6125595 -1.1160864 0.11138504 100
0.69929868 -1.2746532 -0.23027156 63
0.60248327 -1.0981821 0.15379913 100
0.70273805 -1.2809224 -0.1793917 67
0.6012435 -1.0963759 0.19804606 87
0.71084499 -1.2962357 -0.12933911 100
0.60491329 -1.1035246 0.24461715 82
0.7459572 -1.3608266 -0.081330083 100
0.73990303 -1.3503412 -0.026876707 100
0.6488902 -1.1842406 0.36182904 43
0.73892188 -1.3507875 -0.41255757 100
0.74471825 -1.3613836 0.027086135 100
0.641366 -1.1729364 -0.30863285 13
0.58642662 -1.0724628 0.06405922 100
0.70243239 -1.2851483 -0.28468704 100
0.60392147 -1.1049157 0.11016486 100
0.70086145 -1.2828057 -0.23152302 81
0.60437292 -1.1062001 0.15477408 100
0.70430851 -1.289115 -0.18036664 85
0.59838235 -1.0956899 0.19773319 82
0.70380682 -1.2887312 -0.12846756 100
0.6020456 -1.1028554 0.24423553 81
